-16.638300 -8.128798 0.862178
-16.629776 -8.121067 1.292506
0.000036 -0.022782 -0.000771
-16.611418 -8.097815 2.159020
-13.267695 -6.469534 2.072234
-13.118324 -6.391304 2.394930
-13.001128 -6.328815 2.721590
-2.900682 -1.424997 -1.911593
-3.063078 -1.502204 -1.912140
-3.248763 -1.591208 -1.919050
-3.454624 -1.689121 -1.926591
-3.675295 -1.794002 -1.932023
-3.935569 -1.918615 -1.945810
-4.180387 -2.034776 -1.938704
-4.207334 -2.045934 -1.823857
-4.353117 -2.115120 -1.758783
-4.604651 -2.234060 -1.726872
-4.981372 -2.412858 -1.724903
-5.359754 -2.593284 -1.705349
-5.790952 -2.797624 -1.681894
-6.330782 -3.054961 -1.664070
-6.924332 -3.336303 -1.632511
-7.736203 -3.721530 -1.616464
-8.864900 -4.306939 -1.618477
-10.402199 -5.047685 -1.624445
-10.462130 -5.072140 -1.357323
0.000050 -0.022477 -0.000761
-16.689125 -8.066914 -1.296423
-16.719915 -8.074570 -0.866333
-16.772425 -8.092662 -0.433045
-16.803574 -8.104045 -0.000906
-16.828903 -8.109009 0.432579
-16.621677 -8.002311 0.858932
-16.618584 -7.997268 1.288056
-16.591711 -7.977262 1.715739
-16.602089 -7.975116 2.151834
0.000050 -0.022477 -0.000761
-13.259821 -6.365614 2.414073
-13.141848 -6.303557 2.743451
-2.912054 -1.408941 -1.913623
-3.071804 -1.483706 -1.912129
-3.256423 -1.570855 -1.918100
-3.461225 -1.666766 -1.924785
-3.685745 -1.771873 -1.932012
-3.945095 -1.894148 -1.944985
-4.180577 -2.004104 -1.933297
-4.200748 -2.011869 -1.815844
-4.356959 -2.084937 -1.755351
-4.609118 -2.202345 -1.723659
-4.997190 -2.383779 -1.725487
-5.369682 -2.558665 -1.703683
-5.796815 -2.757965 -1.678843
-6.239541 -2.965578 -1.635468
-6.950952 -3.298204 -1.634163
-7.786476 -3.688677 -1.622378
-8.875911 -4.247190 -1.615870
-10.437201 -4.988143 -1.625267
-10.540345 -5.032709 -1.363573
0.000038 -0.022189 -0.000751
-16.902372 -8.046175 -1.309245
0.000038 -0.022189 -0.000751
0.000038 -0.022189 -0.000751
0.000038 -0.022189 -0.000751
0.000038 -0.022189 -0.000751
-16.607311 -7.874213 0.855780
-16.604277 -7.869249 1.283328
-16.579189 -7.850328 1.709623
-16.584311 -7.845676 2.143486
-13.738057 -6.500068 2.133772
-16.567982 -7.827394 3.008069
-13.285575 -6.275393 2.765682
-2.918432 -1.391128 -1.912592
-3.083317 -1.467173 -1.914077
-3.268468 -1.553268 -1.919967
-3.472253 -1.647271 -1.925672
-3.699048 -1.751871 -1.933712
-3.962438 -1.874210 -1.948228
-4.183564 -1.975806 -1.929431
-4.207085 -1.985004 -1.813650
-4.334701 -2.043634 -1.741659
-4.616446 -2.173078 -1.721727
-4.970895 -2.336137 -1.711774
-5.347596 -2.510378 -1.692095
-5.812459 -2.724234 -1.678832
-6.206967 -2.906338 -1.622545
-6.953732 -3.250417 -1.630408
-7.757546 -3.620338 -1.611997
-8.880428 -4.186490 -1.612291
-10.420789 -4.906650 -1.618296
-10.479087 -4.929525 -1.351962
-10.327811 -4.854291 -1.064623
0.000030 -0.021905 -0.000741
0.000030 -0.021905 -0.000741
0.000030 -0.021905 -0.000741
0.000030 -0.021905 -0.000741
0.000030 -0.021905 -0.000741
-16.592497 -7.750333 0.852720
-16.585886 -7.743744 1.278459
-16.555368 -7.722513 1.702579
-16.575052 -7.724648 2.136531
-13.726623 -6.398021 2.126271
-16.549988 -7.702483 2.996736
-16.539818 -7.690758 3.434069
-2.926285 -1.374022 -1.912581
-3.094765 -1.450574 -1.916026
-3.272433 -1.531921 -1.917140
-3.481566 -1.626967 -1.925661
-3.702374 -1.727220 -1.930279
-3.973025 -1.851058 -1.948217
-4.184670 -1.946748 -1.924795
-4.203090 -1.953457 -1.807092
-4.342854 -2.016777 -1.740280
-4.627046 -2.145386 -1.721076
-5.004972 -2.316740 -1.718912
-5.339115 -2.468835 -1.684916
-5.842004 -2.696877 -1.682873
-6.304879 -2.907521 -1.643745
-6.956198 -3.202708 -1.626654
-7.829969 -3.598990 -1.622724
-8.889938 -4.128378 -1.609685
-10.398402 -4.823026 -1.610489
-10.278083 -4.763124 -1.322489
0.000045 -0.021601 -0.000731
0.000045 -0.021601 -0.000731
-16.866947 -7.784898 -0.866755
-16.861633 -7.775330 -0.431747
-16.856634 -7.769485 -0.000862
-16.845703 -7.757348 0.429513
-16.574984 -7.626040 0.849567
-16.568398 -7.619524 1.273731
-16.543327 -7.601058 1.696834
-16.555899 -7.599830 2.128416
-13.714494 -6.296340 2.118769
-16.534729 -7.579703 2.986050
-16.517559 -7.564888 3.420383
-2.937140 -1.358270 -1.914611
-3.102931 -1.432429 -1.916015
-3.285906 -1.514958 -1.919946
-3.494001 -1.608074 -1.927445
-3.713786 -1.706332 -1.931124
-3.983514 -1.827877 -1.948207
-4.182240 -1.916235 -1.918617
0.000037 -0.021317 -0.000721
-4.349125 -1.989112 -1.738216
-4.628825 -2.113719 -1.717223
-4.997212 -2.278147 -1.711751
-5.349613 -2.436177 -1.683803
-5.867898 -2.667676 -1.685900
-6.330263 -2.874875 -1.646039
-6.995820 -3.171962 -1.631633
-7.832524 -3.545493 -1.619009
-8.899063 -4.070285 -1.607079
-10.299667 -4.705373 -1.590991
-10.395645 -4.744653 -1.334075
0.000037 -0.021317 -0.000721
-16.869486 -7.675451 -1.296226
-16.851332 -7.660138 -0.863666
-16.849550 -7.652255 -0.430294
-16.844475 -7.646416 -0.000847
-16.835310 -7.635199 0.428135
-16.558416 -7.503027 0.846507
-16.555523 -7.498254 1.269420
-16.530418 -7.479977 1.691089
-16.535889 -7.475512 2.120300
-13.710681 -6.199078 2.112660
0.000037 -0.021317 -0.000721
0.000037 -0.021317 -0.000721
-2.936962 -1.337541 -1.909500
-3.103069 -1.410699 -1.911106
-3.288006 -1.492835 -1.916180
-3.491672 -1.582540 -1.921152
-3.723418 -1.684616 -1.931113
-3.990499 -1.803114 -1.946568
-4.171175 -1.882058 -1.908585
0.000028 -0.021031 -0.000712
-4.363813 -1.965271 -1.739573
-4.647739 -2.089835 -1.719773
-5.006651 -2.247504 -1.710549
-5.381008 -2.412856 -1.689305
-5.893652 -2.638265 -1.688928
-6.380385 -2.853084 -1.654789
-6.979861 -3.116259 -1.623720
-7.840098 -3.494458 -1.616405
-8.906021 -4.011419 -1.604148
-10.395158 -4.676459 -1.601556
-10.313867 -4.635737 -1.320145
-10.333393 -4.640157 -1.056782
-16.858641 -7.553483 -1.292026
-16.833000 -7.534984 -0.860484
-16.832945 -7.527926 -0.428747
-16.827831 -7.522139 -0.000833
-16.818605 -7.511001 0.426617
-16.540995 -7.380467 0.843447
-16.534483 -7.374115 1.264552
-16.520325 -7.360930 1.685716
-16.520433 -7.354083 2.112881
-13.715247 -6.106072 2.107941
-13.719436 -6.102204 2.464719
-13.776520 -6.121769 2.837942
-2.949214 -1.322399 -1.912550
-3.114196 -1.393911 -1.913055
-3.295057 -1.472293 -1.915230
-3.507154 -1.565002 -1.924731
-3.729633 -1.661408 -1.929391
-3.999326 -1.778377 -1.945744
0.000042 -0.020727 -0.000701
-4.184644 -1.857215 -1.785234
-4.364964 -1.934544 -1.735458
-4.644299 -2.055080 -1.714000
-5.018020 -2.216701 -1.709942
-5.395098 -2.380592 -1.689293
-5.886035 -2.592896 -1.682332
-6.385078 -2.808321 -1.651550
-6.998637 -3.073283 -1.623708
-7.813729 -3.427175 -1.606765
-8.914415 -3.953412 -1.601542
-10.395416 -4.602436 -1.597368
-10.476630 -4.636055 -1.337530
0.000042 -0.020727 -0.000701
-16.842760 -7.426533 -1.287407
-16.818768 -7.408993 -0.857488
-16.815481 -7.404056 -0.427201
-16.795120 -7.388136 -0.000818
-16.734552 -7.354610 0.423383
-16.518482 -7.253062 0.840108
-16.521172 -7.250813 1.260242
-16.496063 -7.232973 1.678857
-16.516315 -7.234970 2.106855
-13.719488 -6.007648 2.102945
-13.903605 -6.085105 2.491320
-13.969222 -6.107939 2.870171
-2.950794 -1.301327 -1.908458
-3.117731 -1.372498 -1.910105
-3.310101 -1.455243 -1.918975
-3.511581 -1.541115 -1.922028
-3.739303 -1.638962 -1.929380
-4.008017 -1.753609 -1.944920
-4.164173 -1.819415 -1.895459
-4.186922 -1.828379 -1.781586
-4.386581 -1.912774 -1.739551
-4.668117 -2.033263 -1.718470
-5.006041 -2.176907 -1.701590
-5.394888 -2.342182 -1.684872
-5.900740 -2.558659 -1.682321
-6.409956 -2.775049 -1.653844
-7.028166 -3.039276 -1.626608
-7.860316 -3.393465 -1.612308
-8.916535 -3.889172 -1.597639
-10.386076 -4.524627 -1.591789
-10.493673 -4.566944 -1.336125
-10.681695 -4.643983 -1.086670
-16.586109 -7.196269 -1.264511
-16.554197 -7.175605 -0.841819
-16.546949 -7.169058 -0.419293
-16.544733 -7.161265 -0.000802
-16.533567 -7.149603 0.417225
-16.521320 -7.140920 0.838166
-16.510635 -7.129497 1.256210
-16.486101 -7.115525 1.673669
-16.495554 -7.112786 2.098971
0.000034 -0.020443 -0.000692
-16.477167 -7.094682 2.945254
-16.460583 -7.080769 3.373782
-2.961051 -1.285879 -1.910488
-3.126844 -1.355469 -1.911074
-3.316427 -1.435744 -1.918025
-3.516731 -1.519791 -1.920223
-3.746890 -1.616395 -1.928513
-4.017629 -1.730907 -1.944909
-4.167353 -1.792948 -1.892365
-4.180113 -1.796657 -1.774300
-4.395351 -1.887227 -1.738856
-4.656962 -1.996441 -1.710137
-5.025405 -2.150734 -1.703962
-5.382988 -2.301230 -1.677143
-5.909914 -2.522085 -1.680790
-6.427042 -2.739692 -1.654294
-7.061644 -3.005314 -1.630339
-7.866931 -3.342497 -1.609704
-8.925290 -3.833596 -1.595357
-10.389212 -4.456941 -1.588436
-10.458607 -4.482264 -1.328458
-11.267913 -4.822909 -1.143511
-16.565351 -7.077447 -1.259893
-16.540596 -7.060087 -0.839104
-16.541834 -7.053800 -0.418118
-16.536478 -7.048127 -0.000788
-16.523436 -7.035789 0.415985
-16.506868 -7.021962 0.835385
-16.494961 -7.013528 1.252039
-16.466177 -6.994554 1.667552
-16.484900 -6.995717 2.092481
-13.910550 -5.903533 2.121898
-16.463085 -6.976337 2.935541
-16.448462 -6.963411 3.363057
-2.966715 -1.267858 -1.909457
-3.134476 -1.337143 -1.911064
-3.321261 -1.414958 -1.916137
-3.531910 -1.501997 -1.923802
-3.757704 -1.595214 -1.929359
-4.041193 -1.712400 -1.951406
-4.187705 -1.772904 -1.896979
-4.176526 -1.766515 -1.768469
-4.409834 -1.862286 -1.740214
-4.670024 -1.970039 -1.710766
-5.051682 -2.127345 -1.708717
-5.392870 -2.267474 -1.676029
-5.890300 -2.473594 -1.671155
-6.443067 -2.701223 -1.654283
-6.992517 -2.927019 -1.610367
-7.871980 -3.289442 -1.606730
-8.927084 -3.773428 -1.591778
-10.335006 -4.361181 -1.576176
-10.379721 -4.377837 -1.315224
0.000040 -0.019853 -0.000672
-16.555387 -6.957145 -1.255972
-16.527411 -6.942040 -0.836388
-16.523039 -6.933440 -0.416618
-16.520685 -6.925693 -0.000774
-16.504530 -6.915573 0.414514
-16.486080 -6.901114 0.832324
-16.479084 -6.891453 1.247728
-16.453970 -6.874253 1.662178
-16.471596 -6.878222 2.085758
-13.950681 -5.822874 2.122746
-16.451220 -6.856292 2.926152
0.000040 -0.019853 -0.000672
-2.966108 -1.246647 -1.904345
-3.134174 -1.314898 -1.906154
-3.324581 -1.392913 -1.913309
-3.525770 -1.474588 -1.915714
-3.760025 -1.570498 -1.925925
-4.042433 -1.685334 -1.947328
-4.186096 -1.742827 -1.891572
-4.171004 -1.735762 -1.761911
-4.408185 -1.831553 -1.735414
-4.682926 -1.943541 -1.711395
-5.051368 -2.092852 -1.704535
-5.412846 -2.239014 -1.678223
-5.879252 -2.429057 -1.664052
-6.433172 -2.653451 -1.647815
-7.039433 -2.900243 -1.617425
-7.911941 -3.254064 -1.611161
-8.945560 -3.718607 -1.591118
-10.381793 -4.310378 -1.579504
-10.284221 -4.265860 -1.299902
0.000031 -0.019569 -0.000662
-16.548960 -6.842406 -1.252471
-16.509077 -6.819224 -0.833392
-16.507128 -6.815070 -0.415212
-16.506544 -6.808103 -0.000760
-16.487814 -6.793680 0.413089
-16.471832 -6.783762 0.829637
-16.464851 -6.774192 1.243696
-16.434870 -6.758556 1.656433
-16.451994 -6.758873 2.078339
-13.998540 -5.748162 2.124986
-16.432516 -6.740874 2.916114
-16.414522 -6.726832 3.340126
-2.980888 -1.233024 -1.909436
-3.142982 -1.297752 -1.907124
-3.333843 -1.374709 -1.914237
-3.535501 -1.455263 -1.916601
-3.770568 -1.549208 -1.926770
-4.053648 -1.662420 -1.948130
-4.183687 -1.714290 -1.886165
-4.170453 -1.707226 -1.757535
-4.411587 -1.803039 -1.732667
-4.692168 -1.915537 -1.710744
-5.049060 -2.057720 -1.699759
-5.436237 -2.211834 -1.681520
-5.898409 -2.397037 -1.665561
-6.450052 -2.616810 -1.648265
-7.072726 -2.864700 -1.621156
-7.868999 -3.181863 -1.598559
-8.947797 -3.660869 -1.587864
-10.376973 -4.238297 -1.575038
-10.304090 -4.206581 -1.299426
0.000023 -0.019285 -0.000653
-16.534363 -6.724965 -1.248411
-16.494946 -6.705628 -0.830770
-16.495935 -6.699338 -0.413945
-16.491583 -6.690882 -0.000746
-16.473476 -6.680225 0.411803
-16.456785 -6.666802 0.826949
-16.447954 -6.656565 1.239525
-16.422831 -6.639772 1.651245
-16.448158 -6.646662 2.073009
-16.399536 -6.620423 2.483774
-16.422661 -6.623086 2.907373
-16.398157 -6.609914 3.329031
-2.988029 -1.215020 -1.909425
-3.160228 -1.282676 -1.912991
-3.340184 -1.353955 -1.913288
-3.543947 -1.433960 -1.916590
-3.774535 -1.524505 -1.924192
-4.059933 -1.636701 -1.946493
-4.162809 -1.676855 -1.872279
-4.163100 -1.675289 -1.750250
-4.429080 -1.779321 -1.735393
-4.696283 -1.884569 -1.708172
-5.071722 -2.031672 -1.703322
-5.472384 -2.188464 -1.688675
-5.889033 -2.352448 -1.658965
-6.454478 -2.573896 -1.645487
-7.053109 -2.808019 -1.612828
-7.858384 -3.123285 -1.592623
-8.952744 -3.600821 -1.584933
-10.175627 -4.085967 -1.540788
-10.398844 -4.173078 -1.308228
0.000037 -0.018980 -0.000642
-16.520107 -6.605031 -1.244351
-16.482372 -6.586662 -0.828147
-16.481398 -6.579609 -0.412584
-16.478846 -6.571947 -0.000732
-16.458817 -6.560660 0.410471
-16.443964 -6.548129 0.824354
-16.435114 -6.537975 1.235632
-16.409983 -6.521388 1.646057
-16.422554 -6.523069 2.064893
0.000037 -0.018980 -0.000642
-16.399143 -6.500571 2.896363
-16.385798 -6.492005 3.318676
-2.990069 -1.195608 -1.906354
-3.159330 -1.260961 -1.908082
-3.344535 -1.333116 -1.911399
-3.550386 -1.412591 -1.915682
-3.781211 -1.502456 -1.923326
-4.067193 -1.613033 -1.945668
-4.144782 -1.641783 -1.859934
-4.165339 -1.649001 -1.747329
-4.426595 -1.749479 -1.730593
-4.706626 -1.858020 -1.708161
-5.045523 -1.988433 -1.690800
-5.482615 -2.156872 -1.688113
-5.909190 -2.322047 -1.660980
-6.466851 -2.536828 -1.645015
-7.088147 -2.777332 -1.617391
-7.924514 -3.099656 -1.602609
-8.956709 -3.542422 -1.582003
-10.351156 -4.088938 -1.563879
-10.326445 -4.075062 -1.296153
0.000025 -0.018691 -0.000632
-16.499046 -6.489799 -1.240012
-16.467821 -6.470923 -0.825524
-16.474960 -6.470419 -0.411503
-16.463028 -6.459126 -0.000718
-16.442215 -6.444377 0.409138
-16.420607 -6.432640 0.821387
-16.422958 -6.426969 1.232019
-16.389269 -6.410531 1.640497
-16.406784 -6.410774 2.058403
-16.378510 -6.393183 2.469327
-16.386147 -6.392871 2.887947
-16.377707 -6.383013 3.309803
-2.998197 -1.179224 -1.907364
-3.164592 -1.242382 -1.907092
-3.345452 -1.310990 -1.907633
-3.554773 -1.391159 -1.913877
-3.789677 -1.480352 -1.923315
-4.071195 -1.587325 -1.943217
-4.138565 -1.611635 -1.852986
-4.174661 -1.624698 -1.747318
-4.415422 -1.715565 -1.722374
-4.708616 -1.826378 -1.704949
-5.051789 -1.956135 -1.689002
-5.475087 -2.117398 -1.682037
-5.924548 -2.287340 -1.661475
-6.472581 -2.494641 -1.642698
-7.146887 -2.749757 -1.626943
-7.931627 -3.048076 -1.600376
-8.968889 -3.489218 -1.580694
-10.322689 -4.008968 -1.556073
-10.447163 -4.055008 -1.308436
-11.271054 -4.368831 -1.127830
-16.485764 -6.375004 -1.236231
-16.448786 -6.354164 -0.822716
-16.452126 -6.352158 -0.410004
-16.445717 -6.343117 -0.000705
-16.437876 -6.333519 0.408131
-16.409882 -6.316206 0.818978
-16.409290 -6.312704 1.228265
-16.387857 -6.297927 1.636610
-16.392466 -6.293138 2.051912
-16.367929 -6.277205 2.462105
-16.372053 -6.275517 2.878881
-16.349081 -6.260209 3.296486
-3.006838 -1.161209 -1.908373
-3.168765 -1.221515 -1.905122
-3.359678 -1.293344 -1.911378
-3.559754 -1.367869 -1.912071
-3.793211 -1.455629 -1.920737
-4.077023 -1.561567 -1.941580
-4.135859 -1.582192 -1.847579
-4.180621 -1.598284 -1.745852
-4.437725 -1.693697 -1.727151
-4.720730 -1.799617 -1.705578
-5.046778 -1.920654 -1.683629
-5.467651 -2.077133 -1.675962
-5.919409 -2.246081 -1.656399
-6.492193 -2.459088 -1.644070
-7.129071 -2.697135 -1.619447
-7.965519 -3.008294 -1.603697
-8.975149 -3.428468 -1.578089
-10.298053 -3.929090 -1.548824
-10.079719 -3.842155 -1.259479
-10.630768 -4.046970 -1.061304
-16.469093 -6.256310 -1.232172
-16.439365 -6.238490 -0.820373
-16.438925 -6.235055 -0.408737
-16.430553 -6.225343 -0.000691
-16.418951 -6.214426 0.406751
-16.393538 -6.201576 0.816383
-16.392187 -6.194532 1.224234
-16.373425 -6.184212 1.631607
-16.381845 -6.180861 2.046118
-16.355505 -6.164445 2.454881
-16.357927 -6.162105 2.870141
-16.346117 -6.151178 3.288723
-3.009953 -1.142907 -1.906322
-3.177063 -1.204115 -1.906091
-3.361788 -1.272426 -1.908551
-3.565569 -1.347061 -1.911164
-3.798050 -1.432221 -1.919015
-4.085848 -1.537776 -1.941569
-4.135882 -1.555568 -1.843714
-4.184430 -1.571960 -1.743659
-4.429680 -1.661287 -1.720300
-4.704259 -1.762230 -1.695964
-5.059449 -1.891940 -1.684214
-5.479416 -2.045321 -1.675951
-5.923078 -2.208320 -1.653855
-6.522574 -2.427443 -1.648209
-7.109959 -2.641621 -1.611534
-7.997868 -2.966124 -1.606648
-8.982954 -3.373857 -1.576131
-10.285151 -3.856277 -1.543523
-10.132545 -3.797313 -1.263410
-10.671764 -3.994212 -1.063150
-16.452391 -6.141594 -1.228253
-16.428896 -6.129582 -0.818123
-16.429474 -6.123284 -0.407609
-16.415405 -6.111544 -0.000677
-16.402668 -6.103565 0.405512
-16.383905 -6.090110 0.814160
-16.380718 -6.082439 1.220759
-16.355556 -6.066639 1.626233
-16.372356 -6.069617 2.040556
-16.334887 -6.049288 2.446544
-16.344116 -6.046230 2.861400
-16.329519 -6.037611 3.278368
-3.013349 -1.123555 -1.904272
-3.187315 -1.186152 -1.908040
-3.372480 -1.253375 -1.910418
-3.571708 -1.324974 -1.910255
-3.809765 -1.410606 -1.920716
-4.094523 -1.513923 -1.941558
-4.131074 -1.525657 -1.837537
-4.193569 -1.546809 -1.743648
-4.432004 -1.632882 -1.717553
-4.700274 -1.728804 -1.690831
-5.070477 -1.861597 -1.684203
-5.472949 -2.006892 -1.670428
-5.959601 -2.181424 -1.660429
-6.529033 -2.386905 -1.646353
-7.128629 -2.601679 -1.612355
-7.985153 -2.909030 -1.600712
-8.991604 -3.316144 -1.574174
-10.307082 -3.796694 -1.543511
-10.205171 -3.755300 -1.269662
-10.708260 -3.935326 -1.064438
-16.434919 -6.027279 -1.224333
-16.412331 -6.012526 -0.815502
-16.410929 -6.005528 -0.406249
-16.403238 -5.999488 -0.000664
-16.385891 -5.986699 0.404225
-16.372719 -5.975435 0.811844
-16.362854 -5.968611 1.216866
-16.343319 -5.955058 1.621602
-16.351944 -5.951741 2.033600
-16.315359 -5.935254 2.438485
-16.328461 -5.933571 2.852658
-16.311352 -5.920934 3.267642
-3.022905 -1.107059 -1.906301
-3.190706 -1.166301 -1.906070
-3.374558 -1.231851 -1.907591
-3.577483 -1.303478 -1.909347
-3.817738 -1.388367 -1.920706
-4.099629 -1.488792 -1.939920
-4.130987 -1.498423 -1.833672
-4.186532 -1.516701 -1.737091
-4.444792 -1.608329 -1.718911
-4.717201 -1.703983 -1.693381
-5.081014 -1.832079 -1.684192
-5.495166 -1.978919 -1.673724
-5.962855 -2.143533 -1.657885
-6.537069 -2.347018 -1.644959
-7.156300 -2.564895 -1.615255
-8.022040 -2.869952 -1.604774
-8.991868 -3.257317 -1.570920
-10.339852 -3.741013 -1.545169
-10.189137 -3.682728 -1.265011
0.000029 -0.017229 -0.000583
0.000029 -0.017229 -0.000583
-16.390173 -5.897389 -0.812693
-16.396212 -5.893108 -0.405029
-16.386595 -5.886447 -0.000651
-16.378567 -5.877123 0.403217
-16.361603 -5.864626 0.809622
-16.351759 -5.857889 1.213531
-16.334114 -5.845176 1.617342
-16.331581 -5.837850 2.026877
-16.308119 -5.826289 2.432374
-16.312056 -5.821292 2.843917
-6.946549 -2.486186 1.388400
-3.029132 -1.089345 -1.906291
-3.198926 -1.148209 -1.907039
-3.379830 -1.211516 -1.906641
-3.588203 -1.283755 -1.911132
-3.823865 -1.365466 -1.919839
-4.106310 -1.464260 -1.939096
-4.134242 -1.472495 -1.831349
-4.191577 -1.491037 -1.735625
-4.446789 -1.579924 -1.716164
-4.728622 -1.677127 -1.694011
-5.089571 -1.801861 -1.683586
-5.422911 -1.917696 -1.648354
-5.965874 -2.105676 -1.655342
-6.541181 -2.305820 -1.642642
-7.189309 -2.529798 -1.619401
-8.053173 -2.828596 -1.607725
-9.006657 -3.203878 -1.570260
-10.230421 -3.634897 -1.525673
-10.129539 -3.595254 -1.255025
-11.317898 -4.010602 -1.120337
-16.405193 -5.802512 -1.217052
-16.378529 -5.786682 -0.810444
-16.382624 -5.781711 -0.403856
-16.372940 -5.775098 -0.000638
-16.355452 -5.762546 0.401838
-16.344105 -5.752162 0.807119
-16.330534 -5.744204 1.209498
-16.314772 -5.732287 1.612153
-16.323578 -5.728983 2.021780
-16.294575 -5.715661 2.425429
-16.298624 -5.710695 2.835824
0.000021 -0.016945 -0.000573
-3.033631 -1.071025 -1.905261
-3.198787 -1.127179 -1.903110
-3.386661 -1.191749 -1.906631
-3.590373 -1.261025 -1.908429
-3.824736 -1.340770 -1.916406
-4.126679 -1.444494 -1.944780
-4.128585 -1.443536 -1.825171
-4.201749 -1.467186 -1.736342
-4.462808 -1.556438 -1.718889
-4.716609 -1.642171 -1.686317
-5.096151 -1.770986 -1.682383
-5.481049 -1.902423 -1.662677
-5.961335 -2.065337 -1.650772
-6.554251 -2.267822 -1.642631
-7.205528 -2.488717 -1.619807
-8.041347 -2.772331 -1.602159
-9.019265 -3.149728 -1.569275
-10.309088 -3.595775 -1.534290
-10.151844 -3.537218 -1.255245
-11.355774 -3.950299 -1.121812
-16.389219 -5.690686 -1.213411
-16.364294 -5.675671 -0.808102
-16.368284 -5.670653 -0.402682
-16.352896 -5.662157 -0.000624
-16.356129 -5.656891 0.401062
-16.327734 -5.640730 0.804710
-16.317978 -5.634202 1.206163
-16.296566 -5.620466 1.607150
-16.311108 -5.619110 2.016217
-16.278406 -5.604713 2.418205
-16.290060 -5.602365 2.828704
0.000034 -0.016640 -0.000563
-3.039661 -1.053257 -1.905250
-3.208431 -1.109576 -1.905059
-3.391693 -1.171362 -1.905681
-3.599182 -1.240624 -1.909316
-3.835704 -1.319579 -1.918106
-4.138524 -1.420855 -1.946396
-4.112263 -1.411146 -1.814368
-4.210032 -1.442673 -1.736331
-4.466522 -1.527834 -1.716826
-4.733080 -1.617129 -1.688868
-5.100755 -1.739497 -1.680585
-5.495772 -1.870799 -1.663769
-5.962035 -2.026974 -1.647722
-6.547207 -2.221774 -1.637547
-7.181115 -2.432516 -1.611062
-8.042642 -2.719266 -1.599185
-9.024097 -3.093002 -1.566995
-10.272020 -3.514462 -1.525649
-10.376928 -3.548173 -1.280517
-11.212324 -3.828144 -1.105450
-16.373463 -5.576367 -1.209770
-16.351194 -5.565633 -0.805853
-16.349445 -5.558681 -0.401415
-16.338741 -5.548709 -0.000611
-16.335306 -5.544377 0.399775
-16.321997 -5.533528 0.802860
-16.313192 -5.524214 1.203386
-16.284241 -5.508117 1.602704
-16.294172 -5.508317 2.010190
-16.262465 -5.491309 2.410981
-16.274284 -5.488976 2.820287
-16.254845 -5.479295 3.230294
-3.044133 -1.034372 -1.904220
-3.209914 -1.088585 -1.902110
-3.398497 -1.150939 -1.905671
-3.606391 -1.218966 -1.909305
-3.845102 -1.297098 -1.918952
-4.146553 -1.396719 -1.946386
-4.116969 -1.385270 -1.812816
-4.214890 -1.416210 -1.734865
-4.468023 -1.499434 -1.714079
-4.760478 -1.594691 -1.695259
-5.101821 -1.705905 -1.677595
-5.491757 -1.833995 -1.659347
-5.961007 -1.987030 -1.644166
-6.535776 -2.175806 -1.631541
-7.139179 -2.372438 -1.598576
-8.030066 -2.663383 -1.593619
-9.034702 -3.036611 -1.565686
-10.312672 -3.461879 -1.528700
-10.401478 -3.487523 -1.280969
-11.174289 -3.741112 -1.099493
-16.363577 -5.467836 -1.206688
-16.338350 -5.453106 -0.803604
-16.340309 -5.447427 -0.400381
-16.336176 -5.442901 -0.000599
-16.318472 -5.430696 0.398581
-16.299461 -5.418087 0.800171
-16.293518 -5.412969 1.199632
-16.268349 -5.398342 1.598072
-16.281202 -5.396298 2.004628
-16.250467 -5.382994 2.404592
-16.266169 -5.381895 2.813491
-16.244032 -5.368319 3.221790
-3.048313 -1.015997 -1.903189
-3.222656 -1.071957 -1.906018
-3.403288 -1.130500 -1.904721
-3.611557 -1.197327 -1.908398
-3.857563 -1.276322 -1.921508
-4.157914 -1.373667 -1.948002
-4.112507 -1.357245 -1.807410
-4.219346 -1.390475 -1.733400
-4.458627 -1.467575 -1.707229
-4.753270 -1.561684 -1.689486
-5.096947 -1.671494 -1.672819
-5.500325 -1.801472 -1.658786
-5.964886 -1.949985 -1.642128
-6.524038 -2.130045 -1.625536
-7.174972 -2.338235 -1.603555
-8.075110 -2.626488 -1.599533
-9.038826 -2.979946 -1.563405
-10.304107 -3.392890 -1.524513
-10.404304 -3.421715 -1.278870
-11.163371 -3.665886 -1.096323
-16.345392 -5.357113 -1.203048
-16.321911 -5.343148 -0.801262
-16.327602 -5.338708 -0.399301
-16.313896 -5.331089 -0.000586
-16.311352 -5.323967 0.397666
-16.299900 -5.313967 0.798693
-16.282578 -5.305199 1.196575
-16.255489 -5.290128 1.593813
-16.268448 -5.288077 1.999298
-16.239651 -5.275609 2.398482
-16.247971 -5.272046 2.805073
-16.235312 -5.261708 3.214026
-3.054019 -0.998134 -1.903179
-3.222043 -1.050954 -1.902089
-3.406295 -1.109518 -1.902833
-3.623392 -1.177847 -1.911079
-3.861302 -1.252680 -1.919786
-4.149994 -1.344385 -1.940670
-4.106104 -1.328756 -1.801232
-4.228959 -1.366425 -1.734117
-4.474069 -1.443866 -1.709954
-4.745852 -1.528821 -1.683714
-5.102752 -1.640662 -1.671617
-5.457380 -1.752559 -1.642788
-5.948271 -1.906522 -1.634520
-6.519418 -2.086852 -1.621375
-7.184485 -2.295395 -1.602712
-8.043166 -2.564805 -1.590263
-9.042586 -2.923321 -1.561123
-10.280010 -3.319266 -1.518099
-10.476694 -3.378446 -1.285353
-10.918734 -3.516141 -1.070300
-16.335985 -5.249830 -1.200106
-16.314247 -5.236590 -0.799386
-16.306540 -5.227854 -0.398034
-16.309952 -5.225820 -0.000573
-16.294044 -5.214484 0.396517
-16.274929 -5.202128 0.796004
-16.269039 -5.197130 1.193380
-16.241951 -5.182263 1.589552
-16.253086 -5.179565 1.993735
-16.228148 -5.168536 2.392370
-16.238480 -5.165590 2.798277
-16.225899 -5.155370 3.206263
-3.059632 -0.980238 -1.903168
-3.224630 -1.031041 -1.900119
-3.410857 -1.089061 -1.901884
-3.621500 -1.153982 -1.906581
-3.873555 -1.231770 -1.922343
-4.145386 -1.316349 -1.934965
-4.106561 -1.302590 -1.798138
-4.231345 -1.340092 -1.731924
-4.466089 -1.412742 -1.703787
-4.756294 -1.501733 -1.684343
-5.106556 -1.609245 -1.669818
-5.478306 -1.724245 -1.646084
-5.964609 -1.873674 -1.636029
-6.542389 -2.052452 -1.624130
-7.195648 -2.253125 -1.602286
-8.059587 -2.518729 -1.590622
-9.049767 -2.867935 -1.559491
-10.253529 -3.245435 -1.511406
-10.410628 -3.290944 -1.274903
-11.179976 -3.528733 -1.093884
-16.318258 -5.140423 -1.196605
-16.294495 -5.126724 -0.796951
-16.296232 -5.121030 -0.397047
-16.291967 -5.116574 -0.000560
-16.279821 -5.106545 0.395462
-16.266380 -5.096107 0.794154
-16.254803 -5.089386 1.190184
-16.225819 -5.074137 1.585106
-16.238953 -5.072022 1.988405
-16.210287 -5.059998 2.385425
-16.222624 -5.057627 2.790508
-16.202675 -5.045243 3.195906
-3.065144 -0.962317 -1.903158
-3.228768 -1.011658 -1.899129
-3.415282 -1.068577 -1.900934
-3.629727 -1.133362 -1.907469
-3.870112 -1.205945 -1.917198
-4.140808 -1.287682 -1.929260
-4.099787 -1.274288 -1.791961
-4.224658 -1.311042 -1.726093
-4.468907 -1.384272 -1.701724
-4.755704 -1.471241 -1.681131
-5.108355 -1.577293 -1.667425
-5.503065 -1.695918 -1.650484
-5.945604 -1.829966 -1.627914
-6.559955 -2.015021 -1.625503
-7.137681 -2.188447 -1.586473
-8.081837 -2.472878 -1.592093
-9.049086 -2.810253 -1.556561
-10.160855 -3.149803 -1.494972
-10.378062 -3.214845 -1.268629
-11.181001 -3.458152 -1.092014
-16.310236 -5.031492 -1.193802
-16.281649 -5.019608 -0.794888
-16.283300 -5.013893 -0.396013
-16.277979 -5.006058 -0.000548
-16.262991 -4.998365 0.394361
-16.249540 -4.988047 0.791930
-16.242640 -4.979730 1.187127
-16.223152 -4.967588 1.581961
-16.233593 -4.967690 1.984237
-16.194443 -4.949570 2.378757
-16.206949 -4.947213 2.782739
-16.199394 -4.941832 3.189625
-3.077286 -0.945807 -1.907228
-3.236293 -0.992695 -1.900098
-3.419787 -1.047496 -1.899985
-3.634570 -1.110985 -1.906560
-3.882324 -1.184257 -1.919755
-4.137556 -1.260352 -1.924369
-4.101882 -1.248055 -1.789638
-4.232255 -1.285647 -1.726082
-4.483904 -1.360373 -1.704450
-4.780590 -1.447602 -1.686882
-5.135817 -1.552135 -1.673371
-5.514498 -1.664465 -1.651025
-5.978524 -1.801023 -1.633981
-6.575089 -1.978032 -1.626414
-7.210054 -2.164894 -1.599768
-8.109038 -2.429932 -1.594674
-9.044721 -2.749930 -1.552983
-10.137031 -3.078345 -1.488837
-10.256134 -3.110445 -1.251452
-11.115433 -3.365595 -1.083642
-16.294922 -4.923962 -1.190580
-16.268969 -4.909967 -0.792826
-16.264816 -4.902532 -0.394840
-16.258553 -4.897559 -0.000535
-16.248222 -4.888286 0.393306
-16.232809 -4.877482 0.789707
-16.230827 -4.873812 1.184210
-16.207531 -4.860683 1.577700
-16.220814 -4.858494 1.979138
-16.186533 -4.845182 2.373481
-16.193462 -4.841101 2.775618
-16.181240 -4.831319 3.180379
-3.074347 -0.925332 -1.902117
-3.241864 -0.973745 -1.900087
-3.429075 -1.028507 -1.901852
-3.639123 -1.089253 -1.905653
-3.883577 -1.160718 -1.917177
-4.134166 -1.233131 -1.919478
-4.103606 -1.222560 -1.787315
-4.239291 -1.261707 -1.726072
-4.489781 -1.333714 -1.703755
-4.772178 -1.415807 -1.681110
-5.142492 -1.522606 -1.672765
-5.505439 -1.626970 -1.645501
-5.971693 -1.762429 -1.629412
-6.586285 -1.939844 -1.626403
-7.163740 -2.107304 -1.586867
-8.118614 -2.383212 -1.593922
-9.047080 -2.693592 -1.550702
-10.148798 -3.017934 -1.487990
-10.315701 -3.063429 -1.256544
-11.098250 -3.290524 -1.080101
-16.278923 -4.816785 -1.187359
-16.250887 -4.802351 -0.790577
-16.255411 -4.800609 -0.393946
-16.244181 -4.791142 -0.000522
-16.235716 -4.782506 0.392344
-16.221386 -4.775235 0.787856
-16.216423 -4.767634 1.181153
-16.188477 -4.756382 1.573253
-16.205675 -4.755291 1.974040
-16.174173 -4.739948 2.367648
-13.412601 -3.930555 2.295112
0.000033 -0.014301 -0.000484
-3.084357 -0.909312 -1.905167
-3.247185 -0.955350 -1.900077
-3.429598 -1.007580 -1.899025
-3.639902 -1.067121 -1.902950
-3.888387 -1.137550 -1.916311
-4.130568 -1.205960 -1.914586
-4.096110 -1.195251 -1.781138
-4.249993 -1.238023 -1.727517
-4.484674 -1.303921 -1.698956
-4.778346 -1.387489 -1.680459
-5.129078 -1.486364 -1.665606
-5.520186 -1.596545 -1.647144
-6.007701 -1.735181 -1.636492
-6.599133 -1.902129 -1.626854
-7.236237 -2.081686 -1.600163
-8.117423 -2.330413 -1.590949
-9.039145 -2.636134 -1.546800
-10.262952 -2.987266 -1.502175
-10.296306 -2.994988 -1.252125
-10.955688 -3.181755 -1.064483
-16.271799 -4.712708 -1.184836
-16.242825 -4.701280 -0.788888
-16.246183 -4.696101 -0.393051
-16.234900 -4.686719 -0.000510
-16.231350 -4.682643 0.391613
-16.212048 -4.670973 0.786098
-16.197508 -4.660684 1.177817
-16.176121 -4.648439 1.569364
-16.192595 -4.650109 1.969174
-16.155420 -4.633378 2.360980
0.000023 -0.014016 -0.000474
-13.418777 -3.843288 2.628657
-3.086297 -0.889758 -1.903116
-3.247665 -0.934337 -1.897128
-3.432031 -0.985957 -1.897137
-3.654704 -1.047664 -1.907427
-3.898466 -1.115156 -1.918012
-4.130336 -1.179883 -1.911322
-4.090622 -1.167139 -1.775731
-4.250004 -1.210473 -1.724596
-4.495641 -1.278797 -1.700314
-4.790051 -1.359841 -1.681729
-5.130374 -1.453554 -1.663212
-5.531073 -1.564972 -1.647685
-6.043876 -1.706508 -1.643572
-6.613633 -1.864844 -1.627765
-7.246123 -2.039150 -1.599736
-8.126833 -2.282275 -1.590197
-9.043159 -2.578942 -1.544843
-10.218932 -2.910546 -1.493257
-10.308089 -2.931943 -1.251418
-10.859319 -3.083908 -1.053324
-16.250576 -4.605067 -1.181336
-16.231880 -4.593677 -0.787012
-16.229427 -4.586880 -0.391971
-16.223040 -4.582026 -0.000498
-16.212570 -4.572980 0.390511
-16.195143 -4.561981 0.783967
-16.185562 -4.556248 1.175039
-16.158438 -4.542562 1.565103
-16.177725 -4.541882 1.964076
-16.149326 -4.530910 2.356260
0.000015 -0.013732 -0.000465
0.000015 -0.013732 -0.000465
-3.082992 -0.869372 -1.898005
-3.252917 -0.915333 -1.897117
-3.434167 -0.964942 -1.895249
-3.651971 -1.023916 -1.902929
-3.901257 -1.091431 -1.916290
-4.131898 -1.153609 -1.908871
-4.084739 -1.139837 -1.770325
-4.242464 -1.181737 -1.718766
-4.508510 -1.253311 -1.702356
-4.779460 -1.326929 -1.675316
-5.138566 -1.423685 -1.663201
-5.536453 -1.530808 -1.646571
-6.046061 -1.669345 -1.641536
-6.609497 -1.821188 -1.624066
-7.244805 -1.992225 -1.596814
-8.130672 -2.231146 -1.588334
-9.050172 -2.524424 -1.543535
-10.268380 -2.858560 -1.497977
-10.320893 -2.871186 -1.250943
0.000030 -0.013428 -0.000454
-16.235231 -4.496605 -1.178254
-16.215616 -4.488146 -0.784950
-16.218861 -4.482958 -0.391077
-16.205503 -4.473196 -0.000485
-16.199997 -4.468650 0.389595
-16.178679 -4.456714 0.781930
-16.171829 -4.448770 1.172121
-16.152380 -4.437386 1.561957
-16.163294 -4.437342 1.959210
-16.135706 -4.423741 2.350428
-16.137377 -4.418154 2.747783
-16.124826 -4.411717 3.148582
-3.093017 -0.852142 -1.901056
-3.256521 -0.895264 -1.896127
-3.444860 -0.945638 -1.898055
-3.656178 -1.001473 -1.902022
-3.907408 -1.068665 -1.916280
-4.129584 -1.127135 -1.904793
-4.080664 -1.112415 -1.765689
-4.240111 -1.154562 -1.715118
-4.515579 -1.227041 -1.702345
-4.781440 -1.297606 -1.673384
-5.157678 -1.396758 -1.666765
-5.550672 -1.500103 -1.648214
-6.046147 -1.631704 -1.638992
-6.619800 -1.782807 -1.624055
-7.265203 -1.953984 -1.598882
-8.129640 -2.181875 -1.585731
-9.053478 -2.467291 -1.541579
-10.204303 -2.777343 -1.486275
-10.272459 -2.791964 -1.243044
-11.121305 -3.017424 -1.075224
-16.224171 -4.392864 -1.175591
-16.205235 -4.381698 -0.783168
-16.203783 -4.378272 -0.390090
-16.192305 -4.369132 -0.000473
-16.187519 -4.361785 0.388679
-16.169270 -4.353864 0.780265
-16.164343 -4.346500 1.169762
-16.138365 -4.336532 1.558254
-16.148207 -4.333125 1.954343
-16.120659 -4.319732 2.344594
-13.366397 -3.581441 2.272462
-16.106197 -4.306846 3.140078
-3.094316 -0.833674 -1.899005
-3.259720 -0.876337 -1.895138
-3.448312 -0.925648 -1.897106
-3.663381 -0.981221 -1.902909
-3.904673 -1.043540 -1.911991
-4.127097 -1.100717 -1.900716
-4.083162 -1.088372 -1.764137
-4.246618 -1.129840 -1.715107
-4.535200 -1.204054 -1.707123
-4.794264 -1.271211 -1.675295
-5.145245 -1.361421 -1.660201
-5.566587 -1.469777 -1.650409
-6.051627 -1.595593 -1.637969
-6.611046 -1.739446 -1.619433
-7.269011 -1.908574 -1.597208
-8.108124 -2.124396 -1.579055
-9.055594 -2.413374 -1.539622
-10.193265 -2.711165 -1.482367
0.000013 -0.012858 -0.000435
-11.134060 -2.953971 -1.074841
-16.214403 -4.289919 -1.173068
-16.196545 -4.282201 -0.781573
-16.184174 -4.272892 -0.389010
-16.184235 -4.266883 -0.000461
-16.174799 -4.261383 0.387809
-16.155344 -4.250249 0.778414
-16.154280 -4.243951 1.167263
-16.129047 -4.231339 1.554922
-16.140142 -4.231234 1.950407
-16.108784 -4.217040 2.339318
0.000013 -0.012858 -0.000435
-16.098330 -4.205322 3.133794
-3.099138 -0.815015 -1.898995
-3.264776 -0.856681 -1.895127
-3.451952 -0.904438 -1.896156
-3.665597 -0.958281 -1.901103
-3.905474 -1.018718 -1.909414
-4.124436 -1.074355 -1.896637
-4.075166 -1.060156 -1.757960
-4.253170 -1.104333 -1.715097
-4.521981 -1.172509 -1.699588
-4.816326 -1.246212 -1.680406
-5.158694 -1.331989 -1.661978
-5.573026 -1.436934 -1.649848
-6.059045 -1.558900 -1.637452
-6.617115 -1.700102 -1.618500
-7.241887 -1.856734 -1.588881
-8.085866 -2.068664 -1.572379
-9.063956 -2.357841 -1.538639
-10.154947 -2.638251 -1.474562
-10.249927 -2.658991 -1.236527
-11.070320 -2.866687 -1.067027
-16.198187 -4.185732 -1.170126
-16.177086 -4.174292 -0.779418
-16.180119 -4.169047 -0.388302
-16.165831 -4.162374 -0.000449
-16.155172 -4.153632 0.386753
-16.145380 -4.145133 0.776748
-16.141666 -4.141185 1.164623
-16.112558 -4.127755 1.551032
-16.120617 -4.123821 1.945075
-16.096256 -4.114621 2.334041
-13.328802 -3.404403 2.259191
-16.086737 -4.100255 3.126771
-3.098694 -0.795591 -1.895923
-3.269584 -0.837578 -1.895117
-3.451900 -0.882964 -1.893329
-3.670988 -0.936873 -1.901093
-3.900675 -0.993267 -1.904269
-4.089736 -1.040062 -1.877917
-4.070399 -1.033694 -1.753325
-4.244936 -1.075916 -1.709267
-4.515808 -1.142950 -1.694789
-4.819684 -1.217255 -1.679115
-5.140285 -1.295507 -1.653627
-5.577394 -1.403585 -1.648734
-6.052839 -1.519959 -1.633389
-6.634260 -1.663545 -1.620334
-7.195443 -1.800564 -1.576396
-8.095651 -2.021290 -1.571997
-9.061997 -2.301446 -1.536033
-10.045068 -2.547922 -1.456458
-10.290046 -2.605951 -1.239532
-11.134854 -2.814754 -1.071661
-16.191010 -4.084324 -1.167882
-16.163958 -4.071522 -0.777635
-16.161119 -4.064816 -0.387269
-16.154556 -4.060188 -0.000438
-16.145794 -4.052007 0.385976
-16.128204 -4.041629 0.774804
-16.130316 -4.039163 1.162125
-16.107004 -4.027388 1.548257
-16.115108 -4.023432 1.941603
-16.075415 -4.010582 2.327651
-13.344286 -3.326354 2.258554
-16.075663 -3.998741 3.120116
-3.104831 -0.777861 -1.896934
-3.274290 -0.818451 -1.895107
-3.462003 -0.864047 -1.896136
-3.667573 -0.913294 -1.896596
-3.909781 -0.971368 -1.905970
-4.083172 -1.013164 -1.872213
-4.072635 -1.009074 -1.751773
-4.260047 -1.053383 -1.712894
-4.533201 -1.119313 -1.698883
-4.806288 -1.184247 -1.672062
-5.180965 -1.273711 -1.664340
-5.559179 -1.364806 -1.641006
-6.067050 -1.486148 -1.634898
-6.638000 -1.623659 -1.618940
-7.198008 -1.756959 -1.574721
-8.114727 -1.976199 -1.573467
-9.067382 -2.247058 -1.534726
-10.057582 -2.489275 -1.456169
-10.304795 -2.546349 -1.239521
-11.195297 -2.761227 -1.075922
-16.173483 -3.980733 -1.164940
-16.146307 -3.968094 -0.775667
-16.151173 -3.963316 -0.386467
-16.138721 -3.957290 -0.000426
-16.127998 -3.948719 0.385013
-16.110367 -3.938456 0.772860
-16.110603 -3.935543 1.159067
-16.093084 -3.925332 1.544739
-16.095467 -3.919961 1.936504
-16.065445 -3.909712 2.322931
-13.326694 -3.240325 2.252405
-16.056320 -3.895641 3.111982
-3.111005 -0.759542 -1.897944
-3.277313 -0.798301 -1.894117
-3.461844 -0.841958 -1.893309
-3.674597 -0.891639 -1.897483
-3.909969 -0.947280 -1.903393
-4.078364 -0.986065 -1.867321
-4.071284 -0.982871 -1.748678
-4.256899 -1.026365 -1.709246
-4.530559 -1.089936 -1.695453
-4.800057 -1.153186 -1.667570
-5.180722 -1.241802 -1.661946
-5.527824 -1.322190 -1.629418
-6.056611 -1.446430 -1.629822
-6.630396 -1.579915 -1.614779
-7.213658 -1.716542 -1.575958
-8.078085 -1.917859 -1.564199
-9.070884 -2.190616 -1.533093
-10.131798 -2.443588 -1.464786
-10.288755 -2.477477 -1.235798
-11.068080 -2.660154 -1.062163
-16.163769 -3.876533 -1.162557
-16.136471 -3.864056 -0.774072
-16.136715 -3.861142 -0.385574
-16.134609 -3.854686 -0.000414
-16.112164 -3.843414 0.384096
-16.101620 -3.837940 0.771381
-16.094770 -3.830378 1.156288
-16.078537 -3.823569 1.541221
-16.088711 -3.820053 1.933031
-16.049746 -3.804924 2.317376
-13.320091 -3.157333 2.248202
-16.049725 -3.796055 3.106439
-3.116794 -0.742249 -1.898953
-3.278280 -0.778919 -1.892147
-3.459556 -0.820721 -1.889543
-3.679438 -0.870802 -1.897473
-3.908232 -0.922802 -1.899960
-4.071300 -0.960095 -1.861617
-4.065863 -0.957326 -1.744043
-4.269938 -1.003237 -1.712146
-4.525529 -1.061783 -1.691338
-4.802866 -1.124385 -1.666279
-5.193293 -1.212942 -1.663723
-5.546292 -1.293607 -1.632716
-6.034618 -1.404285 -1.621708
-6.614386 -1.536881 -1.608773
-7.211920 -1.672050 -1.573453
-8.079359 -1.868826 -1.562337
-9.075209 -2.137829 -1.531785
-9.919611 -2.333869 -1.432209
-10.329429 -2.426011 -1.239034
-11.123429 -2.607532 -1.066053
-16.144295 -3.776410 -1.159616
-16.122702 -3.765440 -0.772383
-16.125513 -3.760176 -0.384773
-16.122704 -3.756553 -0.000402
-16.109936 -3.747671 0.383551
-16.096128 -3.738547 0.770088
-16.080853 -3.732059 1.153789
-16.069187 -3.723465 1.538260
-16.077477 -3.719471 1.929094
-16.037865 -3.707389 2.312656
-13.309140 -3.073655 2.243350
-16.036776 -3.695361 3.099786
-3.115920 -0.722849 -1.895883
-3.291142 -0.761675 -1.897035
-3.464147 -0.800485 -1.889532
-3.679105 -0.848127 -1.894770
-3.913432 -0.900003 -1.899950
-4.071510 -0.934421 -1.859166
-4.060455 -0.931170 -1.739408
-4.268312 -0.976698 -1.709226
-4.507840 -1.029231 -1.682435
-4.814745 -1.097674 -1.668190
-5.190832 -1.180645 -1.660734
-5.550037 -1.259533 -1.631602
-6.048201 -1.370491 -1.623217
-6.594852 -1.490942 -1.601846
-7.196831 -1.623384 -1.568036
-8.067214 -1.815414 -1.557882
-9.073847 -2.082179 -1.529505
-9.859822 -2.257951 -1.421621
-10.308304 -2.358265 -1.234848
-11.169256 -2.550201 -1.069015
-16.131332 -3.672325 -1.157093
-16.116770 -3.666053 -0.771067
-16.111717 -3.659004 -0.383926
-16.113438 -3.653492 -0.000391
-16.092167 -3.645730 0.382634
-16.076412 -3.636289 0.768143
-16.077349 -3.630608 1.151987
-16.048178 -3.618156 1.534185
-16.065613 -3.619136 1.925156
-16.020849 -3.603207 2.307100
-13.300121 -2.988321 2.238821
-16.046204 -3.600079 3.097575
-3.120084 -0.704056 -1.895872
-3.283612 -0.739190 -1.890167
-3.470513 -0.780026 -1.890461
-3.682270 -0.825613 -1.893863
-3.915106 -0.875697 -1.898228
-4.069627 -0.909095 -1.855902
-4.058630 -0.905178 -1.736314
-4.268518 -0.949873 -1.707033
-4.519137 -1.004178 -1.684477
-4.791477 -1.062284 -1.657935
-5.171557 -1.143804 -1.652383
-5.559012 -1.227673 -1.632143
-6.041029 -1.330982 -1.619154
-6.629890 -1.458468 -1.608292
-7.227022 -1.586209 -1.572600
-8.113962 -1.776582 -1.564907
-9.070570 -2.024602 -1.526900
-10.174239 -2.267768 -1.465032
-10.163002 -2.261546 -1.215817
-11.084975 -2.461687 -1.059529
-16.119026 -3.571764 -1.154709
-16.105024 -3.562783 -0.769472
-16.101839 -3.556186 -0.383171
-16.095087 -3.551765 -0.000379
-16.082216 -3.543050 0.381903
-16.058599 -3.531988 0.766291
-16.062834 -3.529978 1.149487
-16.047277 -3.520706 1.532153
-16.047928 -3.514994 1.920521
-16.023867 -3.506811 2.304606
-13.291968 -2.905922 2.234617
0.000019 -0.010804 -0.000366
-3.125716 -0.686159 -1.896883
-3.287766 -0.719994 -1.890157
-3.473143 -0.759352 -1.889512
-3.690395 -0.804858 -1.895647
-3.916485 -0.852088 -1.896507
-4.072929 -0.884958 -1.855078
-4.063713 -0.881502 -1.736304
-4.264729 -0.923025 -1.703385
-4.528468 -0.978641 -1.685835
-4.801176 -1.035190 -1.659206
-5.185468 -1.115308 -1.654756
-5.560303 -1.194164 -1.630479
-6.022044 -1.290257 -1.612052
-6.628581 -1.417939 -1.605975
-7.191963 -1.534951 -1.563025
-8.106697 -1.725881 -1.561564
-9.070436 -1.969540 -1.524944
-10.125118 -2.195484 -1.456114
-10.276789 -2.224462 -1.227868
-11.022980 -2.381194 -1.052272
-16.108040 -3.471875 -1.152465
-16.090038 -3.462137 -0.767783
-16.092667 -3.456840 -0.382464
-16.081957 -3.451613 -0.000368
-16.074911 -3.444239 0.381264
-16.053219 -3.433757 0.765091
-16.047718 -3.429656 1.146987
-16.028275 -3.419670 1.528448
-16.036753 -3.415636 1.916816
-16.006914 -3.406372 2.299330
-11.630624 -2.473709 1.952864
0.000011 -0.010520 -0.000356
-3.119447 -0.665727 -1.890751
-3.290090 -0.700398 -1.889167
-3.479127 -0.739412 -1.890441
-3.698389 -0.784019 -1.897431
-3.921256 -0.829219 -1.896496
0.000025 -0.010214 -0.000346
-4.065037 -0.857033 -1.734752
-4.268106 -0.897794 -1.702647
-4.513712 -0.948040 -1.678300
-4.808856 -1.007622 -1.659836
-5.189872 -1.084749 -1.654150
-5.533121 -1.154809 -1.620546
-6.010353 -1.251345 -1.606977
-6.567956 -1.365295 -1.589364
-7.191033 -1.491239 -1.560936
-8.085638 -1.672548 -1.555629
-9.066110 -1.913735 -1.522339
-10.209247 -2.151894 -1.466402
-10.184383 -2.142975 -1.215332
-10.923382 -2.293745 -1.041486
-16.096457 -3.372242 -1.150222
-16.078348 -3.362607 -0.766281
-16.073097 -3.355677 -0.381524
-16.074083 -3.352951 -0.000356
-16.067011 -3.345636 0.380626
-16.047235 -3.335699 0.763891
-16.031979 -3.329619 1.144487
-16.016434 -3.320571 1.525487
-16.023020 -3.316113 1.912878
-11.628804 -2.407384 1.668332
-11.588560 -2.394867 1.943472
-6.203058 -1.284413 1.192770
-3.126558 -0.648167 -1.892782
-3.292295 -0.680797 -1.888178
-3.479813 -0.718373 -1.888553
-3.702797 -0.762429 -1.897422
-3.925914 -0.806340 -1.896486
-4.064832 -0.833790 -1.846923
-4.053566 -0.830026 -1.727804
-4.269483 -0.872163 -1.701182
-4.506138 -0.919135 -1.673501
-4.794066 -0.975490 -1.652782
-5.192225 -1.053798 -1.652948
-5.550949 -1.124926 -1.623843
-6.019303 -1.216809 -1.607473
-6.554661 -1.322955 -1.584281
-7.178332 -1.445287 -1.556351
-8.123983 -1.631434 -1.561172
-9.074989 -1.860816 -1.522005
-10.159304 -2.080119 -1.457484
-10.066062 -2.057467 -1.199780
-10.811454 -2.205153 -1.029585
-16.086220 -3.273254 -1.148118
-16.062147 -3.262546 -0.764593
-16.060732 -3.256429 -0.380770
-16.061699 -3.253706 -0.000345
-16.052624 -3.246050 0.379848
-16.034779 -3.236637 0.762412
-16.027349 -3.232232 1.142824
-16.000099 -3.220952 1.522154
-16.026201 -3.220372 1.911032
0.000016 -0.009930 -0.000336
-11.592428 -2.325876 1.941862
-5.973207 -1.201095 1.147234
-3.130172 -0.629852 -1.892771
-3.294385 -0.661189 -1.887187
-3.483839 -0.698036 -1.888543
-3.703559 -0.740110 -1.895617
-3.928672 -0.783090 -1.895620
-4.066055 -0.808656 -1.845285
-4.060041 -0.806743 -1.728565
-4.274379 -0.847275 -1.701172
-4.522538 -0.894273 -1.677595
-4.808846 -0.949394 -1.655973
-5.192532 -1.022496 -1.651150
-5.549903 -1.090197 -1.621628
-6.024251 -1.181464 -1.606956
-6.564250 -1.284127 -1.584732
-7.242415 -1.413174 -1.568399
-8.083283 -1.573205 -1.551534
-9.077755 -1.806705 -1.520697
-9.979060 -1.981514 -1.429917
-10.165394 -2.016498 -1.210207
-10.923566 -2.162211 -1.039049
-16.073990 -3.171319 -1.145875
-16.051201 -3.163923 -0.763184
-16.051695 -3.158215 -0.380109
-16.039438 -3.149990 -0.000333
-16.033718 -3.145980 0.378977
-16.019745 -3.137436 0.760840
-16.012890 -3.130303 1.140464
-15.989537 -3.119964 1.519379
-11.616027 -2.267126 1.383488
-11.589914 -2.257845 1.658891
-11.586589 -2.253013 1.938630
-5.954888 -1.161540 1.142430
-3.132104 -0.610650 -1.891741
-3.301631 -0.642011 -1.889137
-3.486130 -0.676734 -1.887594
-3.699049 -0.716154 -1.891119
-3.926075 -0.758110 -1.892187
-4.061619 -0.783231 -1.841208
-4.059256 -0.781310 -1.726242
-4.271949 -0.820215 -1.698252
-4.514627 -0.865471 -1.672797
-4.797591 -0.917393 -1.650201
-5.198468 -0.991396 -1.651140
-5.569256 -1.060424 -1.625476
-6.027293 -1.144692 -1.605933
-6.540879 -1.240254 -1.577344
-7.277297 -1.376212 -1.574210
-7.995572 -1.508241 -1.533008
-9.076620 -1.750288 -1.518741
-10.118636 -1.948332 -1.448278
-10.604403 -2.037572 -1.260994
-10.953753 -2.100438 -1.040710
-16.056652 -3.071682 -1.143352
-16.040201 -3.062746 -0.761775
-16.040613 -3.057022 -0.379401
-16.029757 -3.052072 -0.000322
-16.020611 -3.044548 0.378246
-16.004650 -3.035736 0.759267
-15.997275 -3.031461 1.138103
-11.600312 -2.196620 1.101006
0.000022 -0.009340 -0.000316
-11.577371 -2.186024 1.655283
-11.587679 -2.183782 1.936696
0.000022 -0.009340 -0.000316
-3.133827 -0.592004 -1.890711
-3.301795 -0.622063 -1.887168
-3.486436 -0.655707 -1.885705
-3.703059 -0.694552 -1.891109
-3.928540 -0.734867 -1.891321
-4.058814 -0.758206 -1.837944
-4.054573 -0.755973 -1.722378
-4.272897 -0.794652 -1.696787
-4.519479 -0.839164 -1.672786
-4.823248 -0.893225 -1.657234
-5.202160 -0.960811 -1.650534
-5.573334 -1.027707 -1.624915
-5.993762 -1.102384 -1.595286
-6.519149 -1.197053 -1.570417
-7.223465 -1.322799 -1.560894
-7.992465 -1.459774 -1.530776
-9.082620 -1.696983 -1.518082
-10.133515 -1.890452 -1.448823
-10.152991 -1.890407 -1.206010
-10.887277 -2.022543 -1.033268
-16.048521 -2.974175 -1.141528
-16.026083 -2.964242 -0.760273
-16.030367 -2.959246 -0.378740
-16.017511 -2.954001 -0.000311
-16.004393 -2.945823 0.377467
-15.992342 -2.937840 0.757881
-11.667351 -2.143672 0.829095
0.000014 -0.009056 -0.000306
-11.579076 -2.119175 1.376076
-11.568274 -2.115121 1.652232
-6.091251 -1.115804 1.016836
-11.551064 -2.103673 2.211517
-3.137139 -0.573662 -1.890701
-3.300117 -0.601818 -1.884218
-3.486633 -0.634711 -1.883818
-3.699908 -0.671665 -1.887510
-3.929099 -0.711306 -1.889600
-4.064995 -0.734149 -1.838747
-4.053354 -0.731347 -1.720055
-4.268180 -0.768111 -1.693139
-4.531722 -0.813356 -1.675512
-4.800259 -0.860166 -1.647620
-5.188740 -0.927207 -1.644566
-5.566015 -0.991982 -1.621045
-5.999955 -1.067558 -1.595276
-6.526075 -1.158057 -1.570406
-7.260038 -1.284711 -1.567121
-8.002867 -1.412378 -1.531136
-9.076645 -1.641561 -1.515477
-10.074332 -1.817418 -1.438792
-10.699411 -1.927709 -1.269555
-10.894781 -1.958831 -1.032886
-16.028507 -2.871946 -1.138866
-16.013334 -2.866355 -0.758865
-16.017574 -2.861348 -0.378033
-16.015015 -2.855132 -0.000300
-15.993464 -2.848415 0.376829
-15.983373 -2.840882 0.756680
0.000006 -0.008772 -0.000297
-11.570178 -2.050570 1.095826
-11.577349 -2.049763 1.374461
-11.563024 -2.043082 1.649737
-6.049117 -1.070824 1.008740
-5.925689 -1.048098 1.133203
-3.138745 -0.554458 -1.889671
-3.301857 -0.581638 -1.883228
-3.488545 -0.613421 -1.882869
-3.705527 -0.649705 -1.888397
-3.929638 -0.687079 -1.887879
-4.051227 -0.706629 -1.830602
-4.044835 -0.704800 -1.714649
-4.268933 -0.741849 -1.691674
-4.516051 -0.782680 -1.667978
-4.814573 -0.832987 -1.650811
-5.177161 -0.893222 -1.639194
-5.569862 -0.958332 -1.620484
-6.000431 -1.030694 -1.593746
-6.525110 -1.117726 -1.568552
-7.261687 -1.240335 -1.565863
-8.030450 -1.367876 -1.534829
-9.070616 -1.584686 -1.512873
-10.010722 -1.744455 -1.428204
-10.234978 -1.781515 -1.213180
-10.910071 -1.894534 -1.033247
-16.023579 -2.772769 -1.137320
-16.000483 -2.765924 -0.757457
-16.000717 -2.760211 -0.377233
-15.996133 -2.753680 -0.000289
-15.986379 -2.749130 0.376283
-11.592791 -1.991758 0.548184
0.000020 -0.008468 -0.000287
-11.558536 -1.977589 1.093607
-11.569675 -1.977419 1.372148
-11.559260 -1.971491 1.647521
-6.051422 -1.033967 1.008102
-5.955004 -1.016567 1.137657
-3.138351 -0.536055 -1.887620
-3.311893 -0.564055 -1.887137
-3.502308 -0.595378 -1.888492
-3.707303 -0.628428 -1.887489
-3.935161 -0.665137 -1.888724
-4.049533 -0.683501 -1.828152
-4.046845 -0.681607 -1.713868
-4.278479 -0.718620 -1.693846
-4.516451 -0.757317 -1.666599
-4.807886 -0.803936 -1.646959
-5.166965 -0.861524 -1.634418
-5.580625 -0.928843 -1.622128
-6.006026 -0.996859 -1.593735
-6.544470 -1.084338 -1.571769
-7.229650 -1.194417 -1.557536
-8.049322 -1.326024 -1.537040
